ply
format ascii 1.0
comment PCL generated
element vertex 560
property float x
property float y
property float z
property uchar red
property uchar green
property uchar blue
property float nx
property float ny
property float nz
property float curvature
element camera 0
property float view_px
property float view_py
property float view_pz
property float x_axisx
property float x_axisy
property float x_axisz
property float y_axisx
property float y_axisy
property float y_axisz
property float z_axisx
property float z_axisy
property float z_axisz
property float focal
property float scalex
property float scaley
property float centerx
property float centery
property int viewportx
property int viewporty
property float k1
property float k2
end_header
3.5323761 -2.4009044 63.299519 200 200 200 -0.51455253 -0.82250297 -0.24233182 0.18329352
3.5235691 -2.4010174 63.299671 200 200 200 -0.1544762 0.98735964 0.03546904 0.11303326
3.5147595 -2.4010808 63.300007 199 199 199 -0.40974748 0.91159159 0.03328364 0.078650765
3.5059497 -2.4012105 63.300182 199 199 199 0.057702623 0.99830747 -0.007255346 0
3.4971421 -2.4012251 63.300667 199 199 199 -0.08302328 -0.96151644 -0.26190308 0.15472305
3.4883313 -2.4012566 63.30109 199 199 199 -0.019167837 0.9965173 -0.081153147 0
3.4795251 -2.4013193 63.301418 199 199 199 -0.37472576 -0.36148405 -0.85376215 0.15189645
3.4707155 -2.4013791 63.301708 199 199 199 -0.040424276 0.99781388 -0.052280739 0
3.4530916 -2.4016235 63.30204 200 200 200 0.54624575 -0.82967269 -0.11514692 0.19691209
3.4482634 -2.3990958 63.301575 200 200 200 0.98549253 -0.15598156 -0.066890247 0.062504157
3.435472 -2.4019096 63.302219 201 201 201 -0.045764122 0.99764895 -0.051012475 0
3.4266593 -2.4020545 63.302265 200 200 200 0.073500216 0.99719399 -0.014210009 0
3.4178486 -2.4022238 63.302311 200 200 200 -0.99998182 -0.0017027661 0.0057862941 0
3.4130237 -2.3997893 63.301872 199 199 199 0.9927206 -0.08428587 -0.08603321 0
3.4042165 -2.3999345 63.301971 199 199 199 -0.066726379 -0.98050493 -0.18481773 0.19005084
3.3954074 -2.4000847 63.302097 199 199 199 -0.2566981 -0.22744815 -0.93934733 0.026450666
3.3865964 -2.4002178 63.302284 199 199 199 0.1153196 0.99332839 0.00027409734 0
3.3777876 -2.4003205 63.302502 199 199 199 0.049234204 0.99875236 -0.0083497753 0
3.3689778 -2.4004483 63.302647 199 199 199 -0.99769592 -0.067007773 0.010616772 0
3.3601642 -2.4006104 63.30275 199 199 199 -0.068120919 0.99762857 0.0098449588 0
3.3513489 -2.400769 63.302807 199 199 199 -0.13524218 -0.33362111 -0.93295574 0.17031197
3.3425322 -2.4009349 63.30286 199 199 199 0.14017501 -0.10326976 -0.98472655 0
3.3337152 -2.4010696 63.302994 199 199 199 -0.10636526 -0.99197215 -0.068393774 0.12013482
3.3248985 -2.4011903 63.303162 200 200 200 0.025505967 -0.99866271 -0.044968545 0.073020011
3.3160844 -2.4012778 63.30336 200 200 200 -0.24871099 -0.95696443 -0.14953899 0.15822533
3.2984607 -2.4015088 63.303577 200 200 200 0.084643565 -0.99476588 -0.05723872 0.094419137
3.2896459 -2.401633 63.303623 200 200 200 0.16264269 -0.96890467 -0.18646994 0.14481044
3.2848735 -2.3991671 63.303047 199 199 199 0.19758728 -0.15525204 -0.96791321 0
3.2760596 -2.3993537 63.303143 199 199 199 0.10539454 0.9943468 0.012903342 0
3.263201 -2.4020233 63.303753 199 199 199 -0.053353213 0.99331337 -0.10238154 0
3.2584336 -2.3996084 63.303318 199 199 199 0.43339053 -0.86634636 -0.24822682 0.17035867
3.2455783 -2.4022729 63.30394 199 199 199 -0.26303244 -0.11797776 -0.95754641 0
3.2367556 -2.4023616 63.304226 199 199 199 0.16126312 0.041752473 -0.98602784 0
3.2319899 -2.400063 63.303753 199 199 199 -0.032007869 -0.23415691 -0.97167176 0.029880205
3.2231758 -2.4001272 63.304024 199 199 199 0.51114029 -0.85708559 -0.064341515 0.096495055
3.2143638 -2.4002783 63.304081 200 200 200 0.98909593 -0.074470297 -0.12705705 0
3.2055478 -2.4004567 63.304085 199 199 199 -0.67719644 0.73506248 0.03298717 0.098758705
3.1967263 -2.4006114 63.3041 199 199 199 -0.094994903 0.13813752 -0.98584682 0
3.1879044 -2.4007967 63.304089 200 200 200 -0.26755357 -0.9628917 -0.035420269 0.056726299
3.1790769 -2.4010193 63.30397 201 201 201 0.83291107 -0.49368471 -0.25006926 0.16638543
3.1744363 -2.3980675 63.303581 204 204 204 0.18115953 -0.27795017 -0.94335836 0
3.1656175 -2.3982635 63.303532 206 206 206 0.076122053 0.99709696 0.0017408275 0
3.1525912 -2.4015582 63.303806 157 157 157 0.031051209 -0.99375111 -0.10721277 0.18721195
3.143764 -2.4017437 63.303688 99 99 99 0.058074385 0.97276145 -0.22441599 0
3.1349323 -2.4019215 63.303699 97 97 97 -0.048445527 -0.99660861 -0.066515394 0
3.1261201 -2.4020793 63.303905 92 92 92 -0.14958529 -0.67308277 -0.72428167 0.28372845
3.11731 -2.4020877 63.304333 86 86 86 -0.10858 -0.095755532 -0.98946518 0.046050992
3.1085017 -2.4020793 63.304802 83 83 83 -0.4667919 -0.839396 -0.27842349 0.222011
3.0996885 -2.4020832 63.305233 86 86 86 0.3470861 -0.93632221 -0.053215131 0.099788614
3.0908854 -2.4020274 63.30582 86 86 86 -0.44273129 0.89633268 0.024014512 0.1410668
3.0820768 -2.4018986 63.306572 84 84 84 -0.61079711 -0.79027098 -0.048976291 0.15650828
3.0732713 -2.4016695 63.307472 86 86 86 0.17326827 0.98487049 -0.0028902744 0
3.0597763 -2.3986316 63.308605 88 88 88 -0.92265701 0.37030157 -0.10761369 0.15595417
3.0509617 -2.3984149 63.309723 85 85 85 -0.98221159 0.18516968 0.031185826 0
3.0421453 -2.398262 63.31086 89 89 89 -0.93143082 -0.35892335 -0.060088716 0.17003185
3.0333173 -2.3979821 63.312061 92 92 92 0.032705154 0.99916995 0.024283132 0.11406142
3.0156853 -2.3973279 63.31419 85 85 85 -0.069884092 0.99743289 0.01561959 0
3.0068524 -2.3971882 63.31517 86 86 86 -0.70437312 -0.70969051 -0.014067428 0.18828578
2.9939725 -2.3999603 63.316692 84 84 84 -0.28061929 -0.50567359 -0.81581068 0.23993486
2.981117 -2.4019814 63.31757 85 85 85 -0.054742891 -0.17592022 -0.98288119 0.1241093
2.9634883 -2.4020693 63.318207 86 86 86 -0.51151359 0.85822362 0.042498693 0.10884082
2.9506691 -2.4036543 63.318439 94 94 94 0.071664259 0.99715543 0.023350516 0
2.9330714 -2.4036582 63.317867 106 106 106 -0.28657797 -0.18836142 -0.93935776 0.17746067
2.9282482 -2.402544 63.317486 148 148 148 -0.82237703 -0.56881022 0.012289697 0.073265284
2.9234281 -2.4009244 63.317009 183 183 183 -0.99870545 -0.029049527 0.041756656 0
2.914618 -2.4011884 63.316509 218 218 218 -0.083833776 -0.99569386 -0.039568841 0
2.900949 -2.3994701 63.315041 202 202 202 -0.10625267 0.99433017 0.0042240671 0
2.8921392 -2.3998811 63.31422 201 201 201 -0.29561055 0.95528483 -0.006733831 0.1331363
2.8833368 -2.4003582 63.313229 200 200 200 -0.024857698 0.99961168 -0.012594307 0
2.8745408 -2.4008229 63.312222 200 200 200 0.20431994 -0.84124964 -0.50055212 0.18026319
2.8696225 -2.3983541 63.31115 200 200 200 0.69677263 -0.71172881 -0.089162447 0.10809343
2.8608234 -2.3989155 63.310219 199 199 199 -0.068000384 0.9788177 -0.19311108 0
2.8520324 -2.3994968 63.30925 199 199 199 -0.10188726 0.99426305 0.032558158 0.092976741
2.8432391 -2.400017 63.308327 200 200 200 0.010385506 0.99903512 -0.0426732 0
2.8344524 -2.4005127 63.307415 201 201 201 0.18647471 -0.90299428 -0.38707685 0.22287582
2.825666 -2.4010262 63.306419 201 201 201 -0.086642094 0.99618417 -0.010504444 0
2.8207309 -2.3983731 63.305401 201 201 201 0.9852863 -0.099143401 -0.13921733 0.13054897
2.8119464 -2.3989258 63.304703 200 200 200 -0.15523838 0.98784322 0.0081724748 0
2.7992997 -2.4022753 63.304077 200 200 200 0.1033681 0.99386048 -0.039448448 0
2.7943382 -2.3997858 63.303253 200 200 200 0.07045605 0.99706352 -0.030004214 0
2.7817361 -2.402885 63.303169 199 199 199 -0.33412105 -0.92685252 -0.17119405 0.19465484
2.772933 -2.4029639 63.303051 199 199 199 -0.77514672 -0.63128138 -0.025128067 0.084240049
2.7641404 -2.4031417 63.302998 199 199 199 0.18426394 -0.38679993 -0.9035666 0
2.7591279 -2.400809 63.302418 199 199 199 0.50742781 -0.27477476 -0.81671041 0.21869257
2.7503195 -2.400934 63.302525 199 199 199 -0.023366489 -0.014197223 -0.9996261 0.24701627
2.741508 -2.4010241 63.3027 200 200 200 -0.12004289 0.9927687 -8.1110978e-05 0
2.7326989 -2.4011381 63.302795 200 200 200 0.070232905 0.99621141 -0.051285159 0
2.7238872 -2.401238 63.302921 201 201 201 0.24205117 0.97021306 0.0098961294 0
2.7150781 -2.4013638 63.303009 201 201 201 0.16680785 0.98596996 0.0062018447 0.11251442
2.7062607 -2.4014201 63.303265 201 201 201 0.19030723 -0.95644504 -0.22135055 0.19741482
2.697448 -2.4014971 63.303429 202 202 202 -0.99095607 0.13350651 0.013491597 0
2.6886377 -2.4016447 63.303436 201 201 201 -0.23223661 -0.23225573 -0.94452292 0.083473779
2.6798241 -2.4018054 63.303383 200 200 200 -0.38272461 -0.86706704 -0.31893039 0.24746162
2.6710074 -2.4019878 63.303356 200 200 200 -0.379354 -0.91972512 -0.10097625 0.13099848
2.6621895 -2.4022298 63.303211 199 199 199 -0.46051285 -0.87731081 -0.13510619 0.13469917
2.6533725 -2.4024208 63.303143 199 199 199 0.19964571 -0.19142491 -0.9609881 0
2.6445553 -2.4025338 63.303082 199 199 199 -0.99998444 0.0055339783 0.0006817996 0
2.6396582 -2.3997447 63.30241 199 199 199 -0.61598021 0.78768319 0.011121992 0.075134471
2.6308451 -2.4000125 63.302147 199 199 199 -0.99986315 0.013915161 0.0089481277 0.094498098
2.6220379 -2.4002686 63.301945 200 200 200 -0.079495013 0.99681246 -0.0067344462 0
2.6132295 -2.4005089 63.301819 202 202 202 -0.40157241 0.15199906 -0.90312564 0
2.6044183 -2.4007652 63.30167 202 202 202 -0.13392417 0.21409944 -0.96758765 0
2.5956092 -2.4010453 63.301453 202 202 202 0.3138023 -0.94459528 -0.096269429 0.15470268
2.5867994 -2.4013515 63.301205 202 202 202 -0.053873137 0.98812872 -0.14387311 0
2.5779881 -2.4016058 63.30101 201 201 201 -0.16472359 -0.98437494 -0.062226631 0.12122697
2.5691786 -2.401845 63.300873 201 201 201 -0.23190634 -0.97053051 -0.065497264 0.11865699
2.5603628 -2.40203 63.300854 200 200 200 -0.044920679 -0.99653995 -0.069931358 0
2.5515475 -2.4022369 63.300854 200 200 200 0.16073725 -0.50042588 -0.85072762 0.076126665
2.5427327 -2.4024472 63.300846 199 199 199 -0.74141204 0.67029655 0.031791627 0.087730169
2.5250793 -2.4026444 63.300747 200 200 200 -0.17544317 -0.23043132 -0.95714211 0.059174523
2.5202451 -2.3991144 63.300549 201 201 201 -0.99962485 0.025075927 0.011021037 0
2.5114422 -2.3995767 63.300282 202 202 202 -0.91486478 0.40336612 0.017843479 0.089511193
2.5026407 -2.3998506 63.300217 203 203 203 0.50627106 -0.8584379 -0.082305178 0.19941789
2.4897177 -2.4030955 63.300213 203 203 203 0.57715356 -0.74672842 -0.33059075 0.21710503
2.4850113 -2.4003992 63.299938 202 202 202 -0.99724138 -0.070398957 0.02352985 0
2.4761891 -2.4006379 63.299812 201 201 201 -0.017064886 0.99979389 -0.010993715 0
2.4673641 -2.400847 63.299732 200 200 200 -0.066508129 0.99706292 -0.03797647 0
2.458539 -2.4009526 63.299839 200 200 200 -0.3581093 -0.93234408 -0.049922034 0.13460296
2.4497185 -2.4009473 63.300285 200 200 200 -0.077038698 -0.14776503 -0.98601747 0.15132688
2.4408956 -2.400974 63.300621 200 200 200 -0.98607147 0.16631462 0.0015635409 0
2.432071 -2.4009912 63.300987 201 201 201 -0.62116802 0.78272736 0.038577728 0.068165526
2.4144413 -2.4008703 63.302505 202 202 202 0.96326447 0.17608649 -0.20276862 0
2.4056206 -2.400892 63.302917 203 203 203 -0.83032745 -0.54609966 -0.1110473 0.20742331
2.3967946 -2.4009228 63.303284 204 204 204 -0.91753256 -0.39587921 -0.037598059 0.17919122
2.3879631 -2.4009635 63.303459 205 205 205 -0.02938224 0.99813443 -0.053520311 0
2.3702917 -2.4010775 63.303062 205 205 205 -0.10166998 -0.98206532 -0.1587792 0.164583
2.3614562 -2.4011295 63.30265 204 204 204 0.29929334 -0.73513657 -0.60827452 0.20416287
2.3526223 -2.4011645 63.302391 204 204 204 -0.074105099 0.99698496 0.023007527 0
2.3437896 -2.4011936 63.302135 204 204 204 -0.98969352 0.14317782 -0.002620022 0
2.3349595 -2.4012203 63.301754 205 205 205 -0.82753837 0.55991542 0.040925398 0.12187464
2.3303399 -2.4009347 63.301613 206 206 206 -0.9895286 0.14276478 -0.021244112 0
2.3214929 -2.4009988 63.30127 206 206 206 -0.99987793 -0.015213374 0.0035541232 0
2.3084745 -2.4013038 63.300522 205 205 205 0.013096064 0.99967575 -0.021836875 0
2.2996368 -2.4013326 63.300266 203 203 203 -0.04517087 -0.99647152 -0.070739433 0.20011544
2.2908022 -2.4013569 63.300014 203 203 203 -0.66762161 0.74271548 0.051526442 0.1331542
2.2861633 -2.4011395 63.299946 203 203 203 -0.1274979 0.99134338 -0.03134568 0
2.2773347 -2.4011612 63.299797 203 203 203 -0.9991467 -0.022038069 0.034931943 0
2.2685058 -2.4011726 63.299812 204 204 204 0.05516262 -0.029902184 -0.99802947 0.070413947
2.2596772 -2.4011834 63.299824 204 204 204 -0.21272616 -0.053869814 -0.97562569 0
2.2508471 -2.4011974 63.299793 203 203 203 0.079650953 0.99665719 0.018169813 0
2.2420192 -2.4012039 63.299892 204 204 204 0.05186376 0.99565428 -0.077348642 0.15004945
2.2331917 -2.4012086 63.300018 204 204 204 0.045108505 -0.99807537 -0.042554244 0
2.2243657 -2.4012063 63.300282 205 205 205 -0.73564732 -0.67636627 -0.036765661 0.20785981
2.2197015 -2.4010336 63.300495 206 206 206 0.15125237 0.98845595 -0.0088070845 0
2.2108817 -2.4010186 63.30106 208 208 208 -0.21908663 -0.97506481 -0.03535131 0.19123721
2.2020559 -2.4010026 63.301773 209 209 209 0.00079601957 0.99992853 0.011924244 0
2.1890638 -2.4011362 63.302773 198 198 198 0.11426983 -0.13295428 -0.98451287 0
2.1714103 -2.401123 63.303543 199 199 199 -0.99957061 -0.023615176 0.017344154 0
2.1625819 -2.4011369 63.303417 209 209 209 -0.20226011 0.97922212 0.014657835 0
2.1537542 -2.4011686 63.302662 190 190 190 -0.98884898 -0.14371924 -0.039019741 0
2.1449387 -2.4012206 63.301098 173 173 173 0.84795046 0.52971697 -0.019491 0.12890485
2.1401937 -2.4012315 63.299553 135 135 135 0.96588784 0.2559253 -0.039534349 0
3.8951178 -2.4081345 63.302807 198 198 198 -0.94613385 0.32358897 -0.010999218 0
3.8903763 -2.4083512 63.302845 198 198 198 0.79479414 -0.60195988 -0.077113934 0.12089817
3.8815606 -2.4083352 63.302917 199 199 199 -0.87272972 -0.48576716 -0.048715197 0.10323819
3.872751 -2.4083252 63.302933 198 198 198 -0.39123014 0.92025483 0.0083696209 0.13639891
3.8639467 -2.4083157 63.303181 198 198 198 -0.46434444 -0.88371515 -0.058580451 0.090081625
3.8551445 -2.4083066 63.303585 198 198 198 -0.99868149 -0.048100792 0.017935291 0.08003407
3.8463428 -2.4082975 63.3041 198 198 198 0.60775274 0.79391629 -0.018264489 0.15217771
3.8375413 -2.4082885 63.304649 198 198 198 -0.20722361 -0.12373194 -0.97043741 0.042321883
3.8287399 -2.408278 63.305264 197 197 197 -0.82761222 -0.56127036 0.0057964991 0.082900688
3.8199379 -2.4082673 63.305904 197 197 197 -0.99449003 -0.10408154 0.012520337 0
3.8111365 -2.4082594 63.306435 198 198 198 -0.51100332 0.64238662 -0.57115227 0.23474167
3.8023372 -2.4082613 63.306675 197 197 197 -0.31984439 -0.94724154 -0.020807136 0.076272815
3.793541 -2.408273 63.306831 197 197 197 0.099840537 -0.99356616 -0.053461764 0
3.7885575 -2.4081333 63.306751 197 197 197 -0.60911113 0.79308063 -0.0025849908 0.16881785
3.7797546 -2.408124 63.306572 197 197 197 -0.74457031 0.65898532 -0.10655189 0.218908
3.7709653 -2.4081461 63.306213 198 198 198 0.14265025 0.98936605 0.028384507 0.10177094
3.762182 -2.4081907 63.305695 198 198 198 0.14795412 0.98885304 0.016714849 0
3.7533922 -2.408231 63.305214 198 198 198 0.65518832 0.41268548 -0.63278663 0.21234182
3.7446036 -2.4082725 63.304832 198 198 198 -0.017427562 0.99963355 0.020714357 0
3.7358131 -2.4083123 63.304512 198 198 198 -0.085443869 0.99619865 0.016957315 0
3.7270186 -2.4083447 63.30434 198 198 198 0.041808069 0.99878216 0.026194587 0
3.7182236 -2.4083858 63.304085 197 197 197 0.055310413 0.99794078 0.032479156 0
3.7094276 -2.4084191 63.304039 197 197 197 -0.28683567 0.82871616 -0.48057756 0.21811481
3.7006328 -2.4084728 63.303757 197 197 197 0.77903265 -0.12753443 -0.61387545 0.19555557
3.6918375 -2.4085279 63.303612 197 197 197 -0.22971335 -0.11554811 -0.96637487 0
3.6830459 -2.4085803 63.30344 198 198 198 -0.35140166 0.93599862 0.0205779 0.093923137
3.6780543 -2.4081249 63.303604 198 198 198 0.98637938 -0.095579222 -0.13386676 0
3.6692655 -2.4081798 63.303337 199 199 199 -0.11725579 0.99310082 0.0013319786 0
3.6604567 -2.4081807 63.303455 199 199 199 -0.010869953 0.99993908 -0.0019515409 0
3.6516628 -2.4082391 63.303253 198 198 198 0.40767935 0.91282731 -0.023320457 0.18410559
3.6428704 -2.4082875 63.303143 197 197 197 0.45374599 0.89111274 0.0057079182 0.084542766
3.6340733 -2.4083135 63.303276 197 197 197 -0.0052249958 0.035996705 -0.99933821 0
3.6252868 -2.4084015 63.302948 196 196 196 -0.12302381 -0.98954952 -0.075213008 0.097960591
3.6165037 -2.4085236 63.302528 197 197 197 0.05705842 0.99422395 -0.09090057 0
3.6077135 -2.4086494 63.302254 197 197 197 0.23188253 0.97252482 -0.02063808 0.10499314
3.5989206 -2.4087725 63.302158 197 197 197 0.13384128 0.99005252 -0.043387629 0
3.5901279 -2.4089386 63.301987 197 197 197 -0.16962747 0.98460007 0.042298514 0.098401003
3.585113 -2.4076109 63.301632 198 198 198 0.50988948 -0.29259759 -0.80894947 0.17099148
3.5763266 -2.4077113 63.301537 198 198 198 0.58678883 -0.80131632 -0.11649468 0.16221452
3.5675457 -2.4078355 63.301426 198 198 198 -0.023124674 0.99721092 -0.070961915 0
3.5587575 -2.4079678 63.30117 198 198 198 0.26414692 -0.96276844 -0.057474036 0.11520667
3.5460732 -2.4098084 63.301567 198 198 198 0.10795332 0.99389017 -0.022988429 0
3.5372458 -2.4098473 63.301704 198 198 198 -0.27308458 -0.33013669 -0.90356773 0
3.52356 -2.4083602 63.301479 197 197 197 0.22671226 -0.61235511 -0.75737888 0.14414996
3.5147541 -2.408432 63.301758 197 197 197 -0.14749682 0.96672028 -0.20903715 0
3.5059471 -2.4084384 63.30225 196 196 196 -0.59936738 -0.64460331 -0.47460008 0.16020592
3.4971395 -2.4084787 63.30262 196 196 196 -0.33123159 -0.93828833 -0.099501483 0.11723097
3.4883313 -2.4084966 63.30307 196 196 196 -0.5188604 -0.22356592 -0.8251074 0.12388121
3.4795227 -2.4085813 63.303288 196 196 196 0.4267506 -0.88070685 -0.20552212 0.12109403
3.4707146 -2.4086452 63.303585 196 196 196 -0.17859112 0.98385471 -0.011621304 0
3.4619043 -2.4087377 63.303799 197 197 197 -0.066374883 0.99603808 -0.059182066 0
3.4530945 -2.4088326 63.30397 197 197 197 -0.12751262 -0.3903082 -0.91181141 0.090610482
3.444283 -2.4089627 63.304054 198 198 198 0.52484125 -0.83380806 -0.17118956 0.11080055
3.4354744 -2.4091148 63.304043 198 198 198 -0.077620745 0.99618542 -0.039869606 0
3.4266601 -2.4092422 63.304047 197 197 197 -0.53001779 -0.82473564 -0.1972108 0.22337906
3.41785 -2.4093721 63.304047 196 196 196 0.042148523 -0.3016811 -0.95247674 0
3.4130208 -2.4072721 63.303383 196 196 196 0.056535471 0.99219763 -0.11111934 0
3.4042153 -2.407407 63.303482 196 196 196 -0.025987973 -0.23778415 -0.97097027 0
3.3954031 -2.4075813 63.303493 196 196 196 -0.016180819 0.99976087 -0.014710504 0
3.3865969 -2.4076734 63.303722 196 196 196 0.084837317 0.98993611 -0.11326598 0
3.3689852 -2.4079056 63.304298 196 196 196 -0.088569537 0.99178648 -0.092277117 0
3.360173 -2.4079978 63.304443 196 196 196 -0.73901933 0.67322332 0.024914561 0.049416874
3.3472946 -2.410146 63.305122 197 197 197 0.043964405 0.99839658 -0.035656948 0
3.3425486 -2.4082465 63.30463 197 197 197 0.11870192 0.97704381 -0.17690504 0
3.333734 -2.4083335 63.304844 197 197 197 -0.049037188 0.99876952 -0.0074002165 0
3.3249178 -2.4084322 63.305035 197 197 197 0.033215813 0.99837828 -0.046233218 0
3.3161035 -2.408505 63.305298 197 197 197 0.1186235 -0.33992338 -0.93294185 0
3.3072879 -2.4086087 63.305428 197 197 197 -0.0094347922 0.99995124 -0.0029064654 0
3.2984722 -2.4087451 63.305443 197 197 197 0.030764449 0.99077451 -0.13198201 0
3.2896571 -2.408879 63.305431 197 197 197 -0.34362289 0.93895125 0.017136578 0.061139807
3.2848787 -2.4066877 63.304756 194 194 194 0.97259146 -0.22450203 -0.060536709 0.071704812
3.2760615 -2.4068613 63.304775 192 192 192 -0.9508993 -0.30438855 -0.056018841 0.11860726
3.2672601 -2.407069 63.304867 190 190 190 -0.62988806 0.77458602 0.057073995 0.081501693
3.2543993 -2.4093359 63.305672 189 189 189 -0.078519672 0.99284101 -0.090008467 0
3.2455785 -2.4094608 63.305714 192 192 192 -0.10112006 0.99482363 -0.010026254 0
3.236762 -2.409512 63.306015 194 194 194 -0.18108897 -0.33174479 -0.92582518 0
3.2279429 -2.4096005 63.306259 195 195 195 0.10188424 -0.20168182 -0.9741376 0
3.2143729 -2.4077241 63.305695 197 197 197 0.0010349604 0.99977314 0.021272816 0
3.2055655 -2.4078834 63.305706 197 197 197 -0.067052871 0.99768227 0.011574681 0
3.1967487 -2.4080675 63.305645 196 196 196 -0.029036187 0.99944693 -0.016212657 0.15262587
3.187927 -2.4082253 63.305626 198 198 198 0.19684555 0.97809881 -0.067636438 0
3.179101 -2.4084394 63.305431 171 171 171 -0.034609597 0.99881977 -0.034078948 0
3.1702697 -2.4086552 63.305172 138 138 138 -0.99930984 -0.030640181 0.021001564 0
3.161443 -2.4088082 63.305145 119 119 119 0.0035788168 0.99607009 -0.088495985 0
3.1437838 -2.4091821 63.305 98 98 98 -0.85681021 -0.51539719 -0.015556945 0.085146636
3.1349564 -2.4093177 63.304985 98 98 98 -0.43350518 -0.61255759 -0.66094351 0.2081098
3.1261382 -2.409409 63.305141 94 94 94 -0.99980205 0.0063674324 0.018852163 0
3.1173236 -2.4094274 63.305534 89 89 89 0.017799519 0.99835193 -0.054558374 0
3.099704 -2.4093695 63.306377 90 90 90 0.9963479 -0.064628273 -0.055803057 0
3.0908918 -2.409363 63.30687 88 88 88 -0.26184869 0.96510696 0.0019649926 0.13547672
3.0820863 -2.4092891 63.307632 85 85 85 0.92866462 0.29589832 -0.22366522 0.27462786
3.0732799 -2.4091671 63.308506 88 88 88 -0.039846517 -0.99756098 -0.05730956 0
3.0597754 -2.4065132 63.309628 88 88 88 0.98210365 -0.13427676 -0.13206896 0
3.0509706 -2.406322 63.310738 88 88 88 -0.43732584 -0.51579005 -0.73668629 0.25534114
3.0421414 -2.4060543 63.311855 90 90 90 0.9981488 0.035405993 -0.049450878 0
3.0333338 -2.4058547 63.313053 93 93 93 -0.11048064 0.99385476 0.0068277614 0
3.0156682 -2.405561 63.315384 89 89 89 0.061933313 0.998074 0.0035454102 0
3.0068319 -2.4054885 63.31625 86 86 86 -0.99287629 -0.10511205 -0.056107175 0.20493694
2.9939735 -2.4076824 63.317593 84 84 84 -0.99902886 0.024946027 0.036318734 0
2.9851534 -2.4076502 63.318092 84 84 84 -0.99847478 0.053393893 0.014042066 0
2.9634902 -2.409579 63.318989 88 88 88 -0.019420249 -0.99805808 -0.059185524 0.19532582
2.9546754 -2.4096286 63.319145 89 89 89 0.99678165 -0.059878469 -0.053300526 0
2.9418745 -2.4109085 63.318748 95 95 95 -0.64794147 -0.76153648 -0.015296891 0.062929809
2.9282439 -2.4099555 63.318329 115 115 115 0.95841187 0.2828466 -0.038007319 0
2.9234173 -2.4085255 63.317986 118 118 118 0.98581517 0.070054583 -0.15251501 0
2.9146075 -2.4087572 63.317493 144 144 144 0.069107518 0.99757117 -0.0087099299 0
2.9097426 -2.4069197 63.316933 166 166 166 0.041789591 0.99910337 0.0067954231 0
2.9009326 -2.4072714 63.316231 175 175 175 0.47696421 -0.82897049 -0.29208401 0.214818
2.8921225 -2.4075825 63.315437 184 184 184 -0.02913082 0.99957037 0.0032412393 0
2.8833158 -2.4079783 63.314465 190 190 190 0.48245388 -0.29115078 -0.8261171 0.23067926
2.8745179 -2.4083614 63.313515 197 197 197 0.19688465 -0.86077666 -0.4693611 0.19249277
2.8696074 -2.4063113 63.312519 196 196 196 0.5163613 -0.84448904 -0.1421589 0.13451767
2.8607903 -2.4067516 63.311562 196 196 196 0.014642721 0.99812496 -0.059432056 0
2.8520043 -2.4071922 63.3106 194 194 194 -0.5148893 0.85554379 0.05416584 0.068010084
2.8432107 -2.4076314 63.309708 192 192 192 0.0056723407 0.99924004 -0.038565326 0
2.8344204 -2.4080489 63.308804 186 186 186 0.010545153 0.99992472 -0.006276683 0
2.8256342 -2.408488 63.307835 180 180 180 0.015936883 0.99962819 -0.022127938 0
2.816843 -2.4088624 63.307011 182 182 182 -0.37067181 0.92776811 0.042998094 0.068200603
2.8080473 -2.4091535 63.306339 182 182 182 0.10734708 0.98884213 -0.10328566 0
2.7992649 -2.409502 63.305546 187 187 187 0.31733072 -0.063030846 -0.94621789 0.086684339
2.7943094 -2.4073975 63.304749 191 191 191 -0.059548713 -0.22077371 -0.9735055 0
2.7816827 -2.4099748 63.304783 194 194 194 -0.50672525 0.77855223 -0.37025127 0.21877934
2.772891 -2.4101787 63.304581 196 196 196 0.20836061 -0.055813432 -0.97645831 0
2.7640898 -2.4102824 63.304646 188 188 188 -0.78144282 -0.62305051 -0.033987224 0.12830961
2.7502673 -2.4083195 63.304188 183 183 183 -0.081389487 0.99666989 -0.0049829828 0
2.7414551 -2.4083927 63.304371 185 185 185 -0.87514842 0.48284528 -0.031235974 0.16145977
2.7326446 -2.4084847 63.304546 183 183 183 0.99716365 0.024517626 -0.071159035 0
2.7238345 -2.4085765 63.30468 181 181 181 -0.35057172 -0.90654141 -0.23512143 0.21656188
2.7062075 -2.4086893 63.305092 172 172 172 -0.99947512 0.013749333 0.029332714 0
2.697392 -2.408735 63.305355 172 172 172 0.35000676 -0.57262528 -0.74134713 0.2358709
2.6885846 -2.408874 63.305317 172 172 172 0.088614389 0.9886604 -0.12123536 0
2.6797752 -2.4090385 63.305222 184 184 184 0.14907853 0.98869789 -0.015880153 0
2.6709635 -2.409209 63.305153 197 197 197 -0.28951144 -0.61637592 -0.7323004 0.26102069
2.6621499 -2.4093606 63.305107 196 196 196 -0.80147207 0.59603101 0.048883844 0.13243891
2.6533346 -2.4095511 63.304993 196 196 196 0.9973051 0.059823941 -0.042468224 0
2.6357095 -2.4099064 63.304695 197 197 197 -0.72225469 -0.45361745 -0.52209145 0.2252285
2.6308234 -2.4075043 63.303761 184 184 184 0.013623238 -0.66087866 -0.75036913 0.15747701
2.6220112 -2.4077284 63.303566 172 172 172 -0.28400236 0.0013195799 -0.95882267 0
2.6092699 -2.410527 63.304203 169 169 169 -0.88447195 -0.46206844 -0.064822607 0.17627566
2.6004577 -2.4106884 63.304028 165 165 165 0.23996954 -0.95871466 -0.15258026 0.28207242
2.5955834 -2.4083557 63.303089 168 168 168 -0.02015206 0.99976581 0.0078804642 0
2.5867715 -2.4086213 63.302792 170 170 170 -0.134361 0.98775995 -0.079230718 0
2.5779607 -2.4088726 63.302536 176 176 176 0.090162344 0.9954052 -0.032238077 0
2.5691462 -2.4090455 63.302479 181 181 181 0.12102916 0.97509009 -0.18587926 0
2.5515141 -2.4093468 63.302429 184 184 184 0.036532491 0.99813658 -0.048874713 0
2.5426977 -2.4095004 63.302383 187 187 187 -0.99928588 0.026995348 0.026438888 0
2.5338786 -2.4096403 63.302376 191 191 191 -0.064868957 -0.074789651 -0.99508721 0
2.5250561 -2.409826 63.302261 182 182 182 0.0025035283 0.99970406 -0.024194954 0
2.5162301 -2.4100225 63.302017 173 173 173 -0.99946541 0.032509975 -0.0034789906 0
2.5114317 -2.4073961 63.301205 167 167 167 -0.3163479 0.0025938894 -0.94863969 0
2.4985583 -2.4102862 63.301754 160 160 160 -0.20972197 -0.21074906 -0.95477825 0.016084565
2.4897318 -2.4103301 63.301643 161 161 161 -0.62779421 -0.77532607 -0.068875745 0.13279456
2.4850066 -2.4080601 63.301083 162 162 162 -0.31045172 -0.93300015 -0.1820174 0.21546397
2.4761915 -2.4082363 63.301102 176 176 176 -0.053124391 -0.93752313 -0.34384319 0.18760185
2.4632092 -2.4102862 63.301651 189 189 189 -0.095971152 -0.98015225 -0.17346746 0.18716648
2.4543631 -2.4102523 63.301834 188 188 188 0.036392268 0.99933755 0.00018537599 0
2.440906 -2.4086304 63.301903 185 185 185 -0.99889547 0.039638862 -0.025233317 0
2.4320848 -2.4086366 63.302364 182 182 182 -0.10031004 0.99388236 -0.046214148 0
2.41907 -2.4096062 63.303833 173 173 173 -0.2101644 -0.97557646 -0.06388671 0.12913561
2.4144485 -2.4086058 63.303864 164 164 164 0.14739047 0.98876166 -0.025026832 0
2.3968048 -2.4086845 63.304642 154 154 154 0.69840139 -0.69706738 -0.16227351 0.19473593
2.3879793 -2.4087167 63.304813 151 151 151 0.86304188 -0.49995467 -0.072139032 0.1470236
2.3791418 -2.4087954 63.304733 147 147 147 0.14770868 0.9888044 -0.021165134 0
2.3702989 -2.4088919 63.304165 155 155 155 -0.36307624 -0.92247659 -0.13119674 0.13288453
2.3614659 -2.408942 63.303814 162 162 162 0.44823396 0.064586684 -0.89157999 0.20357515
2.3526342 -2.4089727 63.303665 155 155 155 -0.04508432 0.9986918 0.024126116 0
2.3437991 -2.4090211 63.303146 148 148 148 -0.11082011 0.99383533 0.0032235519 0
2.3349681 -2.4090533 63.302704 142 142 142 -0.73692834 0.67571241 0.018691799 0.089977846
2.326138 -2.4090865 63.302254 137 137 137 -0.035282969 0.999192 -0.019245731 0
2.3214846 -2.4088719 63.301987 134 134 134 -0.58098733 -0.59581393 -0.55449039 0.29971746
2.3084753 -2.4091518 63.301373 130 130 130 0.1009016 0.99453038 0.026985941 0
2.2996407 -2.409179 63.301098 157 157 157 0.060526486 0.99743938 -0.038093112 0
2.290812 -2.4092033 63.30077 180 180 180 -0.093455069 0.99556428 -0.010858567 0
2.2861645 -2.4089999 63.300671 167 167 167 0.98997337 -0.13420731 -0.044058472 0
2.2773378 -2.4090183 63.300587 152 152 152 -0.28472796 0.096962571 -0.9536919 0
2.2685075 -2.4090369 63.300465 156 156 156 0.96377963 0.26505822 -0.029546116 0.081445299
2.2596769 -2.4090524 63.300396 159 159 159 -0.49834353 -0.86677164 -0.018988894 0.095932066
2.242018 -2.4090796 63.300339 139 139 139 0.11869097 0.0028445993 -0.99292713 0.15802304
2.2331905 -2.4090824 63.300507 139 139 139 0.99911284 -0.010381996 -0.040812895 0
2.224364 -2.4090817 63.300747 139 139 139 0.99314761 0.1064549 -0.04821958 0
2.2155383 -2.4090714 63.301205 124 124 124 0.35613909 0.93427539 -0.017161993 0.10094038
2.1978869 -2.4090366 63.302509 108 108 108 -0.9924199 -0.1219303 0.015357208 0
2.1890593 -2.4090202 63.303173 104 104 104 -0.99500829 -0.099600405 -0.0061761364 0.2322057
2.1714051 -2.4090035 63.304119 91 91 91 -0.99241215 -0.12279922 0.0062036831 0
2.1537495 -2.4090269 63.303875 120 120 120 0.85431159 0.45642155 -0.24865831 0.14777139
2.1449304 -2.4090602 63.302864 105 105 105 -0.93604541 -0.35154584 0.015314351 0
3.8951256 -2.4159784 63.303509 169 169 169 0.41144866 -0.4077144 -0.81515574 0
3.8903835 -2.4161742 63.303627 181 181 181 0.8482424 -0.51305455 -0.13137726 0.074495807
3.8815691 -2.416162 63.303947 192 192 192 -0.28421053 0.95864928 0.014695891 0
3.8727543 -2.4161496 63.303856 189 189 189 -0.1320278 0.99103343 0.020528166 0
3.8639467 -2.4161391 63.304005 186 186 186 -0.54275382 0.83947539 0.026445141 0.046587043
3.8551412 -2.4161308 63.304127 180 180 180 0.0051498874 0.99998581 -0.0013287524 0
3.8463387 -2.416122 63.304539 173 173 173 -0.49613225 0.86739063 0.038552463 0.206724
3.8287344 -2.4161069 63.305382 159 159 159 0.14690459 0.12822831 -0.98080403 0.15067892
3.8111317 -2.4160943 63.306274 150 150 150 -0.99349308 -0.11380929 0.0043387199 0.096356913
3.8023334 -2.4160972 63.306576 143 143 143 -0.98161745 -0.18995748 0.018527854 0.1287591
3.7885699 -2.4160032 63.30682 142 142 142 -0.98608303 0.15887587 0.048977025 0
3.7797718 -2.4159932 63.306732 145 145 145 -0.9994908 0.031806726 -0.0025589145 0.18362089
3.7709754 -2.4160032 63.306538 160 160 160 -0.83481002 -0.49861613 -0.23339678 0.1729258
3.7621791 -2.4160144 63.306164 173 173 173 0.53069472 0.84753525 -0.0068599065 0.070816241
3.7445946 -2.4160802 63.305489 190 190 190 -0.92325091 0.38409743 0.0087740198 0.084468402
3.7358043 -2.4161198 63.305172 173 173 173 0.9108063 -0.40011844 -0.10167217 0.18328185
3.7270103 -2.4161561 63.304905 156 156 156 -0.39686406 -0.8916626 -0.21779968 0.21976173
3.7182133 -2.4161854 63.30481 146 146 146 0.10248125 0.99451709 0.020816559 0
3.7094152 -2.4162159 63.304756 133 133 133 -0.062222533 0.99757415 0.031211803 0.11256134
3.7006185 -2.4162569 63.304623 139 139 139 -0.40630919 -0.9128437 -0.040362492 0.13697402
3.6918225 -2.4163098 63.304375 141 141 141 0.012473411 0.9998998 -0.0066981241 0
3.6830251 -2.4163473 63.304382 153 153 153 0.29190439 -0.40017188 -0.86870837 0.28513497
3.6742315 -2.416409 63.304192 163 163 163 -0.37046641 -0.12432168 -0.92048836 0.083439752
3.6692522 -2.4159513 63.304466 165 165 165 -0.73893619 0.6730147 0.032007553 0.080119349
3.6604514 -2.4159944 63.304348 166 166 166 -0.54659235 -0.8373518 -0.0088773724 0.13850877
3.6516507 -2.4160271 63.304298 157 157 157 0.34877715 0.93715823 0.0094265509 0.082569204
3.6428521 -2.4160414 63.304287 149 149 149 -0.52341604 -0.84922391 -0.069674 0.25875655
3.6340566 -2.4160728 63.304272 138 138 138 -0.994766 -0.10191666 0.0073209787 0
3.6252608 -2.4161019 63.304371 126 126 126 0.39198214 -0.91699046 -0.074016251 0.18284556
3.6164742 -2.4162035 63.303905 136 136 136 0.23879305 0.96490914 -0.10921624 0.21669395
3.607682 -2.41629 63.30373 143 143 143 -0.19697827 -0.96836329 -0.15320554 0.19521675
3.5900853 -2.4164593 63.303627 149 149 149 -0.8787936 -0.47716159 0.0062241964 0.076311089
3.5812831 -2.4165454 63.303658 148 148 148 -0.99968809 -0.022872282 0.010027732 0
3.5724797 -2.4166918 63.303547 148 148 148 -0.50480223 -0.86179566 -0.049829323 0.16753669
3.5636704 -2.4167957 63.303535 147 147 147 -0.30669615 -0.9259845 -0.22020482 0.25128397
3.5548587 -2.41696 63.303471 146 146 146 -0.39266616 0.91856778 0.045238581 0.18923785
3.5460463 -2.4170747 63.303574 146 146 146 -0.99401397 0.10801067 0.016429434 0
3.5372329 -2.4171286 63.303783 145 145 145 0.30581912 -0.93942589 -0.1547693 0.13404655
3.5196142 -2.4172273 63.30434 134 134 134 -0.82354641 0.56670004 0.024947349 0.13851598
3.514746 -2.4157553 63.304188 126 126 126 -0.25511625 -0.57531118 -0.77713114 0.12881939
3.5059416 -2.4157472 63.304607 118 118 118 0.99441755 0.083604328 -0.064373665 0
3.4971361 -2.4157846 63.304981 119 119 119 0.033742398 0.96885622 -0.24531445 0
3.479522 -2.41591 63.305462 125 125 125 0.27315953 -0.94739592 -0.16680788 0.14345893
3.4707129 -2.4159575 63.305733 129 129 129 -0.58540964 0.80953676 0.044111714 0.07304538
3.4579272 -2.4176023 63.306053 141 141 141 0.34689918 -0.17317308 -0.92177659 0
3.4530942 -2.4161627 63.305981 152 152 152 -0.035247821 0.99806076 -0.051306989 0
3.4442837 -2.4162898 63.305969 176 176 176 0.0015127931 0.99995172 -0.0097086411 0
3.4354722 -2.4164255 63.305912 141 141 141 -0.99453437 -0.10350825 0.013689375 0
3.426661 -2.4165621 63.305828 139 139 139 0.12987855 0.99132055 -0.020373959 0
3.4130287 -2.4149172 63.305382 126 126 126 0.072495349 -0.98534113 -0.15442608 0.17141387
3.404217 -2.415128 63.305283 123 123 123 -0.12686026 0.99172747 -0.019570807 0
3.3914118 -2.417016 63.305885 117 117 117 -0.99999982 -5.6984121e-05 0.00069841824 0
3.3825984 -2.4170663 63.306126 111 111 111 -0.99785817 -0.06515561 -0.0058137421 0
3.3689954 -2.4154127 63.306103 114 114 114 0.058043476 0.99797124 -0.026161451 0
3.3561332 -2.4172561 63.306877 121 121 121 -0.13404316 -0.41038218 -0.90200824 0.19666721
3.3473096 -2.4172702 63.307011 127 127 127 0.009847207 0.99987572 -0.012316956 0
3.3384967 -2.4172952 63.307251 133 133 133 -0.9959591 -0.085928366 -0.026108725 0
3.3337548 -2.4157214 63.30695 138 138 138 -0.39501011 -0.91811359 -0.03216311 0.063438445
3.3249376 -2.4158139 63.307194 137 137 137 -0.26859626 -0.24237368 -0.93226123 0
3.316119 -2.4158835 63.307335 135 135 135 0.43834791 -0.88838702 -0.13645336 0.11290003
3.2984853 -2.4161065 63.307396 126 126 126 0.11650856 0.99295187 -0.021733198 0
3.2896674 -2.4162214 63.307446 119 119 119 -0.47142938 -0.87427139 -0.1157753 0.12587909
3.2808509 -2.4163656 63.307373 112 112 112 -0.23261029 -0.095442042 -0.9678756 0
3.2720349 -2.4164724 63.307392 111 111 111 -0.99884599 -0.028482787 -0.038670368 0
3.2544048 -2.4166751 63.307594 110 110 110 -0.031255089 0.99950868 -0.0023546601 0
3.2455893 -2.4167829 63.30764 110 110 110 -0.59638941 0.80141026 0.045401171 0.084447853
3.2367716 -2.4168172 63.307938 116 116 116 0.069871135 0.99753135 0.0070226532 0
3.2279551 -2.4168644 63.308167 121 121 121 -0.030106027 0.9994607 -0.013110078 0
3.21913 -2.4169862 63.30814 127 127 127 0.34159401 -0.92230415 -0.18074428 0.16710107
3.214395 -2.4152431 63.307674 133 133 133 0.9728269 0.2269242 -0.04596895 0.19021627
3.2055838 -2.4153595 63.307594 130 130 130 -0.99930352 -0.019505398 0.031812929 0
3.196769 -2.4155192 63.307503 127 127 127 0.33414176 -0.90923649 -0.24827065 0.20062207
3.1879497 -2.4156842 63.307404 118 118 118 0.4055863 0.91404021 -0.0055023725 0.11670673
3.1791325 -2.4158328 63.307266 108 108 108 0.044647124 0.99875736 -0.022140127 0
3.1703048 -2.4160776 63.306911 105 105 105 -0.98695225 0.16089679 -0.0061295517 0
3.1614745 -2.4162529 63.306725 101 101 101 0.87201291 -0.48273024 -0.081024386 0.15017602
3.1438148 -2.4165711 63.306538 94 94 94 -0.72807074 -0.68401808 -0.04508109 0.18016537
3.1349874 -2.4167175 63.306469 96 96 96 -0.033133976 -0.19033927 -0.98115909 0.098729379
3.1261621 -2.4168184 63.306534 97 97 97 0.97586578 -0.041127566 -0.21446334 0
3.1173468 -2.416853 63.306847 94 94 94 -0.23197141 -0.97201812 -0.037015069 0.11293031
3.0997167 -2.4169083 63.307526 93 93 93 0.54024446 0.8414169 -0.01238728 0.22172247
3.090903 -2.416909 63.307983 93 93 93 0.024790876 0.99903917 0.036140051 0
3.0820932 -2.4168398 63.308647 90 90 90 0.29966173 -0.23414563 -0.92486691 0
3.0732839 -2.4167538 63.309441 92 92 92 0.0032546914 0.9997735 0.021029275 0
3.0556707 -2.4164517 63.311447 88 88 88 -0.29969627 -0.20598288 -0.93153274 0.12341763
3.0509732 -2.4141884 63.311714 90 90 90 -0.2089753 -0.39682308 -0.89379025 0.16675299
3.0421565 -2.414026 63.312798 92 92 92 0.96752948 0.03298106 -0.25059733 0.24437329
3.0333338 -2.4138563 63.314018 93 93 93 -0.064567782 -0.98785061 -0.14135824 0.18294753
3.0156751 -2.4136279 63.316235 87 87 87 -0.79699743 -0.34585688 -0.49515456 0.29068169
3.0068395 -2.4134483 63.317127 88 88 88 -0.042843126 0.99890298 -0.018902948 0
2.9811089 -2.4170997 63.318726 86 86 86 0.031073594 -0.045871835 -0.99846393 0
2.9634788 -2.4171486 63.31926 92 92 92 -0.99642479 -0.084482111 0.0006496206 0
2.9546697 -2.4172199 63.319256 94 94 94 0.99249554 -0.08976686 -0.083032727 0.13936424
2.9458628 -2.4173064 63.319164 93 93 93 0.066305943 0.99725497 -0.032954421 0.094274469
2.9370539 -2.4174759 63.319107 97 97 97 0.40630952 0.91296768 -0.037452418 0.12100259
2.9322262 -2.4160843 63.319057 97 97 97 -0.9822371 -0.17784299 -0.059850499 0
2.9234109 -2.4162748 63.318615 100 100 100 0.99496812 0.082973719 -0.056157831 0
2.9145987 -2.4164755 63.318104 102 102 102 0.98739064 -0.11647115 -0.10721094 0
2.900923 -2.4149933 63.317261 113 113 113 0.0026789927 0.99988645 0.014828166 0
2.8921044 -2.4152963 63.316525 117 117 117 -0.071428046 0.99744493 0.0012771892 0
2.8833003 -2.4156404 63.315617 121 121 121 -0.85467738 -0.51854151 -0.025325418 0.20749268
2.8744977 -2.4159989 63.314636 122 122 122 0.85031587 -0.52253085 -0.062644772 0.12396286
2.8607771 -2.4145403 63.312843 121 121 121 -0.98908138 0.1470104 -0.010297395 0
2.8519754 -2.4149275 63.311989 119 119 119 -0.99944842 -0.010175511 -0.031610418 0
2.8431857 -2.4153137 63.311001 117 117 117 0.0047696782 0.99996334 0.0071022231 0
2.8343925 -2.4157236 63.310104 116 116 116 0.021311218 0.98923075 -0.14480481 0
2.8256052 -2.4160733 63.309204 114 114 114 -0.06522917 0.99677038 -0.046840921 0
2.8168159 -2.4164281 63.308296 111 111 111 -0.99903697 -0.039851367 0.018355409 0
2.808018 -2.4166691 63.307743 112 112 112 -0.075623713 -0.99233007 -0.097785808 0.17240617
2.7904365 -2.4171777 63.30661 111 111 111 0.11468638 0.993352 -0.0099469554 0
2.7816422 -2.4173801 63.306297 110 110 110 -0.99608874 0.079824723 0.03788336 0
2.7728386 -2.4174623 63.306236 112 112 112 -0.03232323 -0.17308939 -0.9843756 0
2.7640417 -2.417537 63.306274 113 113 113 -0.48300174 -0.34752753 -0.80370021 0.23986331
2.7464225 -2.4176993 63.30653 112 112 112 -0.059644062 -0.10362588 -0.9928264 0
2.7413907 -2.4158392 63.306347 111 111 111 -0.99880087 -0.033372272 0.035820819 0
2.7325861 -2.4159141 63.306442 110 110 110 -0.99726725 0.0653923 0.034379605 0.083531015
2.7199662 -2.4178293 63.307163 111 111 111 0.0028856432 0.99985904 -0.016538434 0
2.7061527 -2.4160709 63.30714 111 111 111 -0.70597482 -0.70823556 -0.001340388 0.072976872
2.6973386 -2.4161112 63.307346 109 109 109 0.99878955 -0.011067187 -0.047927264 0
2.6885309 -2.4161956 63.307407 112 112 112 -0.011500059 -0.35787916 -0.93369704 0
2.6797249 -2.4163225 63.307396 114 114 114 -0.21317716 -0.95929468 -0.18522763 0.18402541
2.6621053 -2.4165721 63.307278 118 118 118 -0.8175236 -0.5758841 0.0035638723 0.14304177
2.653291 -2.4166734 63.307281 118 118 118 0.58171463 -0.81069988 -0.066134326 0.21718842
2.644479 -2.4168282 63.307091 118 118 118 -0.1752581 -0.98386961 -0.035849016 0.080988802
2.6356652 -2.4169917 63.3069 115 115 115 -0.3581236 -0.92538685 -0.12412342 0.12079993
2.6268516 -2.4171448 63.306778 113 113 113 0.14851896 -0.037452422 -0.98820013 0.16318524
2.6180415 -2.4173236 63.306622 109 109 109 0.4862209 -0.87145895 -0.064409219 0.13562319
2.6092255 -2.4174836 63.306511 104 104 104 -0.99915349 -0.0024998267 0.041060839 0
2.5955491 -2.4155886 63.305264 101 101 101 -0.68952405 -0.71891522 -0.08784873 0.10849749
2.5867376 -2.4158092 63.305012 105 105 105 -0.98422736 -0.077109754 -0.15921849 0
2.5779238 -2.4160101 63.304852 108 108 108 -0.9984194 0.019729638 -0.052625015 0.12112458
2.5691102 -2.4161913 63.304672 111 111 111 -0.024193428 0.99815291 -0.055727109 0
2.5514808 -2.416496 63.304611 113 113 113 0.054236125 -0.34720427 -0.93621981 0.20218439
2.542665 -2.4166439 63.304562 111 111 111 -0.99112582 0.13110059 -0.02195796 0
2.533849 -2.4168043 63.304478 112 112 112 0.15289019 -0.45239782 -0.878613 0.13583677
2.5250297 -2.4169273 63.304474 112 112 112 -0.2464985 -0.96863198 -0.031473633 0.071804129
2.5162108 -2.41711 63.304295 109 109 109 -0.086585835 0.9887169 -0.12223681 0
2.5073888 -2.4173143 63.303917 106 106 106 0.0075388043 0.99986327 -0.014713644 0
2.4985602 -2.4174099 63.303799 106 106 106 0.10263825 0.99471796 0.0012693813 0
2.4850013 -2.4155409 63.303036 104 104 104 -0.40651855 -0.91158271 -0.06131611 0.088256307
2.4761879 -2.4157283 63.303047 103 103 103 -0.058329929 0.99748296 -0.040316936 0
2.4632366 -2.4176154 63.303551 107 107 107 -0.0081485268 0.99853134 -0.053560138 0
2.4544084 -2.4175234 63.303749 110 110 110 0.054071717 -0.99754971 -0.044393875 0
2.4409115 -2.4162107 63.303852 110 110 110 -0.092795864 -0.23454218 -0.96766675 0
2.4320891 -2.4162741 63.304386 107 107 107 -0.055346098 0.99042183 -0.12649655 0
2.419102 -2.4172013 63.305569 105 105 105 -0.034065217 0.99068624 -0.13183445 0
2.4102736 -2.4171507 63.306042 103 103 103 0.055364568 0.99739796 -0.046175297 0
2.3968117 -2.4164336 63.306293 101 101 101 0.08072383 0.060715027 -0.99488562 0
2.3879862 -2.4164906 63.306332 102 102 102 0.97269899 -0.1952062 -0.12550382 0.21878086
2.3661189 -2.4170744 63.30566 99 99 99 -0.069485925 0.99701881 0.033544239 0.072924577
2.3526444 -2.4167795 63.305027 102 102 102 0.14447077 -0.54146236 -0.828219 0.20083879
2.3438091 -2.4168348 63.30444 101 101 101 -0.9995535 0.00029561401 0.029879307 0
2.3349781 -2.4168649 63.30418 99 99 99 -0.10759552 0.9884128 -0.1070668 0
2.3261459 -2.4169078 63.303574 107 107 107 0.0025126508 0.99957383 -0.029084414 0
2.3173153 -2.416944 63.303043 112 112 112 -0.065686882 0.9976626 -0.01882715 0
2.308481 -2.4169745 63.302719 126 126 126 0.0079067452 0.99985117 -0.015328478 0
2.2996504 -2.4170024 63.302341 139 139 139 0.12746499 0.99172837 -0.015081828 0
2.2819817 -2.4170444 63.301945 124 124 124 -0.10240792 0.99467969 -0.011178439 0
2.277344 -2.4168575 63.301792 113 113 113 -0.99762672 0.060161933 0.033488154 0
2.268512 -2.4168818 63.301579 99 99 99 -0.99163699 0.12903151 -0.0026463256 0
2.255491 -2.4170938 63.301327 103 103 103 -0.038644742 0.99432707 -0.099097714 0
2.2420185 -2.4169376 63.301197 109 109 109 -0.7026825 -0.71142435 -0.010617186 0.07954134
2.2331905 -2.4169428 63.301334 114 114 114 -0.98334563 -0.17366767 -0.053580165 0
2.2243638 -2.4169426 63.301563 109 109 109 0.99004352 0.086625449 -0.11094997 0
2.2155361 -2.4169333 63.302097 103 103 103 -0.14870284 -0.25603339 -0.95516193 0
2.1978848 -2.4169106 63.303131 96 96 96 0.99628812 -0.065552659 -0.055793341 0
2.1890545 -2.4168973 63.303818 98 98 98 0.10005242 -0.076641701 -0.99202597 0
2.1714008 -2.4168825 63.304741 99 99 99 0.97255254 0.22940385 -0.038928162 0
2.1537392 -2.4168847 63.305344 97 97 97 0.93675041 0.34459472 -0.061262891 0
3.8903897 -2.4240003 63.304371 101 101 101 -0.69652861 0.71526295 0.056980327 0.03920003
3.8815761 -2.4239862 63.304821 105 105 105 -0.96217102 0.2720325 -0.015008029 0
3.8727634 -2.4239748 63.30505 110 110 110 -0.35786664 0.93311447 0.035054628 0.1861852
3.8639505 -2.4239619 63.30505 105 105 105 0.24172257 -0.82123816 -0.51685399 0.26288381
3.8551431 -2.4239528 63.305134 100 100 100 0.28300497 -0.95425296 -0.096485868 0.1266246
3.8463368 -2.4239447 63.305229 101 101 101 0.20228502 -0.97563958 -0.08490067 0.12567014
3.8375328 -2.4239376 63.305496 102 102 102 -0.068211719 0.069405884 -0.99525368 0
3.8287292 -2.4239311 63.305779 102 102 102 0.25357869 0.95815396 -0.13281119 0.2367043
3.811125 -2.4239233 63.306347 103 103 103 -0.99798691 -0.035792053 0.052354649 0
3.8023255 -2.4239247 63.306583 104 104 104 -0.99822205 -0.056429364 -0.019194353 0
3.7847276 -2.4239428 63.306915 101 101 101 -0.25993353 -0.33077145 -0.90720719 0
3.7797918 -2.4238689 63.306938 98 98 98 -0.48001993 -0.8772254 -0.0075120279 0.078837395
3.7709806 -2.4238441 63.306973 96 96 96 0.10597911 -0.10691158 -0.98860419 0
3.7583423 -2.4240296 63.306545 97 97 97 0.01498835 0.99928313 -0.034763731 0
3.7445908 -2.4239047 63.306149 100 100 100 -0.8169533 -0.53458673 -0.21634319 0.2171331
3.735796 -2.4239304 63.305904 103 103 103 0.96025676 -0.23080754 -0.15695469 0.17788331
3.7270005 -2.4239564 63.305714 101 101 101 -0.99673176 -0.073503159 0.033512421 0
3.7182026 -2.42398 63.305656 99 99 99 0.61257631 0.79014969 -0.02034032 0.052192423
3.7006052 -2.4240413 63.3055 101 101 101 0.65175533 0.75563979 -0.064987846 0.14497566
3.6918066 -2.4240811 63.30537 101 101 101 -0.7190786 -0.23037466 -0.6556322 0.26066083
3.6742134 -2.424154 63.305283 98 98 98 -0.86875743 0.49517485 0.0078984378 0.080625668
3.6692467 -2.4237728 63.305424 95 95 95 -0.36634281 0.11722076 -0.92306679 0
3.6604369 -2.4237697 63.305481 91 91 91 0.15717456 -0.22617157 -0.96132338 0
3.6516395 -2.4238214 63.305294 89 89 89 0.12404097 0.99147874 -0.039795429 0
3.6340454 -2.4238374 63.305428 90 90 90 -0.24420135 -0.026495587 -0.9693625 0
3.6164567 -2.423933 63.305241 99 99 99 0.99637049 0.020350687 -0.082654081 0.11346561
3.6076596 -2.4239728 63.305191 96 96 96 -0.98384327 0.17847402 0.014126526 0
3.5900624 -2.4240925 63.305161 92 92 92 -0.99856448 -0.031432051 -0.043370135 0
3.5812612 -2.4241695 63.305134 91 91 91 0.8840003 -0.45580548 -0.10384984 0.18920603
3.5636477 -2.4243171 63.305248 91 91 91 -0.99856633 -0.053452317 -0.0028256748 0
3.5460296 -2.4244342 63.305592 97 97 97 0.82913715 -0.53634161 -0.1576996 0.18054798
3.5372229 -2.4244914 63.305958 94 94 94 0.42824453 -0.90149426 -0.0625664 0.072823413
3.5196087 -2.4245965 63.306461 95 95 95 0.11431693 0.99318361 -0.022757668 0
3.5147431 -2.4232817 63.306313 98 98 98 -0.72415173 -0.68958378 -0.0088584609 0.053008784
3.505934 -2.4233439 63.306576 95 95 95 -0.97903836 -0.19508944 -0.058515213 0.13285471
3.4971342 -2.4234138 63.306747 93 93 93 0.14628224 0.98854619 -0.03711988 0
3.4795187 -2.4234762 63.307289 98 98 98 -0.17702195 -0.93755597 -0.29941925 0.20733652
3.4667444 -2.4249272 63.307537 110 110 110 -0.57091045 0.82048547 0.029406445 0.072283544
3.4579306 -2.425025 63.307537 119 119 119 0.62520069 -0.77638566 -0.079683289 0.12479588
3.4530945 -2.4237533 63.307529 177 177 177 -0.98866665 0.14995253 -0.0072498252 0
3.4442821 -2.4239011 63.307331 207 207 207 0.099379711 0.99085438 -0.091275565 0
3.435472 -2.424006 63.307278 133 133 133 -0.96341217 -0.26442054 -0.043804605 0.14096095
3.4266605 -2.424125 63.307194 116 116 116 0.12585129 -0.61371362 -0.77943373 0.16504423
3.4130218 -2.4226639 63.306725 106 106 106 0.2001992 -0.97642863 -0.08066982 0.11823586
3.4042168 -2.4227233 63.306881 115 115 115 -0.14171769 0.98762757 -0.067140743 0
3.3914115 -2.4245167 63.307384 126 126 126 0.0013097282 -0.14639063 -0.98922598 0
3.3825972 -2.4245853 63.307636 110 110 110 0.38331935 -0.92097551 -0.069787979 0.1384495
3.3690109 -2.4229257 63.307827 94 94 94 -0.042486452 0.99611413 -0.077146769 0
3.3561451 -2.424654 63.308254 94 94 94 -0.1215862 0.040658481 -0.99174786 0.080975577
3.3473258 -2.4247067 63.308472 93 93 93 -0.54611802 -0.83763129 -0.011357907 0.076789893
3.3385093 -2.4247377 63.308628 93 93 93 0.52510887 0.85098988 -0.0087643927 0.13995147
3.3249497 -2.4233465 63.309059 98 98 98 -0.024805114 -0.20515746 -0.9784146 0
3.316134 -2.4234221 63.309212 96 96 96 -0.59473181 0.80348337 0.026615789 0.056933686
